148.642 -40.8833 0.477042
148.623 -40.9167 0.454445
148.617 -40.9257 0.448349
148.583 -40.9458 0.431885
148.579 -40.95 0.429956
148.55 -40.9833 0.422888
148.55 -40.9833 0.422888
148.529 -41.0167 0.416687
148.517 -41.0354 0.40783
148.507 -41.05 0.396971
148.484 -41.0833 0.43625
148.483 -41.084 0.435983
148.465 -41.1167 0.366474
148.45 -41.1466 0.363926
148.449 -41.15 0.364328
148.438 -41.1833 0.386055
148.436 -41.2167 0.401609
148.438 -41.25 0.518615
148.438 -41.2833 0.525107
148.437 -41.3167 0.489566
148.436 -41.35 0.450995
148.437 -41.3833 0.460087
148.441 -41.4167 0.458929
148.447 -41.45 0.449687
148.45 -41.464 0.447035
148.455 -41.4833 0.441374
148.458 -41.5167 0.449346
148.466 -41.55 0.472822
148.483 -41.5833 0.490721
148.483 -41.5835 0.49071
148.503 -41.6167 0.500062
148.508 -41.65 0.521306
148.509 -41.6833 0.531395
148.51 -41.7167 0.53561
148.517 -41.75 0.544087
148.517 -41.7504 0.543924
148.522 -41.7833 0.535235
148.531 -41.8167 0.545548
148.546 -41.85 0.543631
148.533 -41.8833 0.493823
148.526 -41.9167 0.479734
148.519 -41.95 0.473189
148.52 -41.9833 0.449791
148.517 -42.0015 0.446832
148.514 -42.0167 0.448982
148.506 -42.05 0.465834
148.499 -42.0833 0.499132
148.491 -42.1167 0.460493
148.483 -42.1425 0.4341
148.48 -42.15 0.432931
148.466 -42.1833 0.460965
148.452 -42.2167 0.47502
148.45 -42.2214 0.471289
148.438 -42.25 0.44929
148.421 -42.2833 0.47635
148.417 -42.302 0.446894
148.414 -42.3167 0.428945
148.384 -42.35 0.444405
148.383 -42.3513 0.448268
148.382 -42.3833 0.450771
148.38 -42.4167 0.43452
148.375 -42.45 0.485419
148.354 -42.4833 0.521614
148.35 -42.4891 0.521492
148.334 -42.5167 0.587183
148.317 -42.5436 0.6508
148.314 -42.55 0.658923
148.3 -42.5833 0.549971
148.286 -42.6167 0.599715
148.283 -42.6239 0.610138
148.269 -42.65 0.613965
148.254 -42.6833 0.698544
148.25 -42.6927 0.730636
148.24 -42.7167 0.797416
148.227 -42.75 1.0594
148.219 -42.7833 0.770262
148.223 -42.8167 0.843073
148.218 -42.85 0.92911
148.217 -42.8525 0.936429
148.199 -42.8833 0.969047
148.192 -42.9167 0.99248
148.183 -42.95 1.02175
148.183 -42.9502 1.02197
148.16 -42.9833 0.983835
148.15 -43.0009 0.97214
148.135 -43.0167 0.953828
148.117 -43.0426 0.956487
148.114 -43.05 0.958316
148.096 -43.0833 0.951405
148.091 -43.1167 0.964729
148.083 -43.1402 0.968491
148.078 -43.15 0.962721
148.05 -43.1782 0.950795
148.017 -43.18 1.37307
148.016 -43.1833 1.35094
148.017 -43.1855 1.36321
148.041 -43.2167 1.11253
148.024 -43.25 1.04762
148.017 -43.2572 1.0298
147.983 -43.2661 1.09962
147.959 -43.25 1.10163
147.95 -43.2468 1.0343
147.917 -43.2417 1.0077
147.883 -43.2418 1.02373
147.85 -43.2455 1.00944
147.841 -43.25 0.97559
147.817 -43.2665 1.03297
147.783 -43.2715 0.954922
147.75 -43.2677 0.975103
147.717 -43.2775 0.769008
147.703 -43.2833 0.76415
147.683 -43.2955 0.758221
147.653 -43.3167 0.662281
147.65 -43.323 0.674491
147.629 -43.35 0.677179
147.619 -43.3833 0.611752
147.617 -43.3872 0.611228
147.601 -43.4167 0.621278
147.583 -43.4339 0.687858
147.57 -43.45 0.697706
147.55 -43.4692 0.631554
147.537 -43.4833 0.635866
147.517 -43.5015 0.639847
147.501 -43.5167 0.640156
147.483 -43.5292 0.639632
147.464 -43.55 0.635518
147.45 -43.5668 0.635028
147.439 -43.5833 0.635885
147.419 -43.6167 0.636056
147.417 -43.6185 0.636253
147.383 -43.6353 0.639021
147.35 -43.6403 0.636612
147.317 -43.6403 0.628404
147.283 -43.6448 0.612894
147.25 -43.6493 0.589159
147.217 -43.6461 0.559927
147.183 -43.6241 0.534639
147.164 -43.6167 0.519846
147.15 -43.6102 0.510668
147.117 -43.6159 0.484909
147.083 -43.6154 0.470874
147.05 -43.6141 0.471545
147.032 -43.6167 0.521468
147.017 -43.6269 0.542973
146.983 -43.6386 0.513645
146.95 -43.6381 0.519714
146.917 -43.6491 0.564097
146.915 -43.65 0.561009
146.883 -43.6745 0.52978
146.85 -43.6783 0.511723
146.817 -43.6788 0.493746
146.783 -43.6815 0.473188
146.767 -43.6833 0.452447
146.75 -43.6861 0.436885
146.717 -43.6938 0.440795
146.683 -43.6935 0.420897
146.65 -43.6857 0.405477
146.642 -43.6833 0.403206
146.617 -43.6764 0.424129
146.583 -43.6598 0.442043
146.55 -43.6603 0.534465
146.517 -43.6616 0.588013
146.483 -43.6648 0.556173
146.46 -43.6833 0.409699
146.45 -43.6888 0.395774
146.423 -43.7167 0.456333
146.417 -43.7206 0.462228
146.391 -43.75 0.413581
146.383 -43.7536 0.40497
146.369 -43.75 0.41952
146.357 -43.7167 0.57881
146.379 -43.6833 0.580548
146.35 -43.6748 0.548713
146.335 -43.6833 0.501082
146.317 -43.6933 0.484984
146.283 -43.7033 0.492514
146.25 -43.7082 0.421769
146.224 -43.7167 0.453827
146.217 -43.7196 0.444884
146.209 -43.7167 0.447539
146.183 -43.6908 0.454009
146.179 -43.6833 0.45272
146.18 -43.65 0.405835
146.15 -43.617 0.471901
146.15 -43.6167 0.472726
146.117 -43.6071 0.528399
146.083 -43.6107 0.48191
146.05 -43.614 0.411502
146.017 -43.6079 0.380635
145.994 -43.5833 0.393205
145.988 -43.55 0.425883
145.983 -43.5402 0.403147
145.95 -43.5226 0.369722
145.943 -43.5167 0.386266
145.926 -43.4833 0.378128
145.917 -43.4752 0.363056
145.883 -43.4522 0.327811
145.881 -43.45 0.329741
145.855 -43.4167 0.384622
145.85 -43.4078 0.389733
145.826 -43.3833 0.392219
145.817 -43.3777 0.387445
145.783 -43.3501 0.356355
145.783 -43.35 0.35641
145.754 -43.3167 0.301876
145.75 -43.3097 0.313716
145.727 -43.2833 0.324528
145.717 -43.274 0.312398
145.688 -43.25 0.296674
145.683 -43.2444 0.290452
145.664 -43.2167 0.316934
145.65 -43.192 0.297917
145.645 -43.1833 0.285065
145.617 -43.15 0.296198
145.617 -43.1495 0.296925
145.583 -43.1435 0.325207
145.55 -43.1318 0.358364
145.541 -43.1167 0.39593
145.517 -43.0962 0.344511
145.506 -43.0833 0.306449
145.483 -43.0715 0.26724
145.46 -43.05 0.252129
145.45 -43.0214 0.308699
145.448 -43.0167 0.314704
145.427 -42.9833 0.354066
145.417 -42.9728 0.343676
145.393 -42.95 0.324146
145.383 -42.9387 0.315004
145.359 -42.9167 0.311107
145.35 -42.9083 0.33302
145.322 -42.8833 0.324151
145.317 -42.8761 0.325002
145.283 -42.8628 0.290145
145.271 -42.85 0.255642
145.25 -42.8232 0.250817
145.243 -42.8167 0.249307
145.217 -42.7895 0.299553
145.209 -42.7833 0.304442
145.187 -42.75 0.240757
145.183 -42.7458 0.245043
145.15 -42.7171 0.247109
145.149 -42.7167 0.246227
145.117 -42.7047 0.240055
145.083 -42.6856 0.26553
145.082 -42.6833 0.262643
145.068 -42.65 0.235251
145.05 -42.6214 0.220897
145.048 -42.6167 0.214724
145.042 -42.5833 0.223552
145.045 -42.55 0.228253
145.044 -42.5167 0.214258
145.045 -42.4833 0.250582
145.05 -42.4551 0.234651
145.052 -42.45 0.232106
145.063 -42.4167 0.228013
145.062 -42.3833 0.247248
145.056 -42.35 0.206959
145.082 -42.3167 0.217342
145.083 -42.3141 0.21884
145.09 -42.2833 0.247704
145.083 -42.2534 0.270302
145.082 -42.25 0.269663
145.076 -42.2167 0.24019
145.068 -42.1833 0.231223
145.05 -42.1588 0.248821
145.043 -42.15 0.248393
145.023 -42.1167 0.207492
145.017 -42.1023 0.20057
145.011 -42.0833 0.201958
144.994 -42.05 0.229025
144.983 -42.0374 0.246459
144.956 -42.0167 0.262508
144.95 -42.01 0.256065
144.936 -41.9833 0.213453
144.931 -41.95 0.225789
144.917 -41.9182 0.191744
144.916 -41.9167 0.191217
144.883 -41.892 0.233608
144.85 -41.8833 0.24585
144.85 -41.8833 0.24585
144.817 -41.8692 0.221262
144.784 -41.85 0.216767
144.783 -41.8497 0.216841
144.767 -41.8167 0.203992
144.761 -41.7833 0.217421
144.75 -41.7605 0.219357
144.744 -41.75 0.209534
144.723 -41.7167 0.173665
144.717 -41.6907 0.15146
144.715 -41.6833 0.147358
144.707 -41.65 0.142266
144.695 -41.6167 0.167919
144.684 -41.5833 0.154918
144.683 -41.5812 0.156252
144.67 -41.55 0.20286
144.65 -41.5278 0.213538
144.617 -41.5267 0.162856
144.583 -41.5461 0.175278
144.55 -41.5259 0.165518
144.517 -41.5187 0.13717
144.511 -41.5167 0.134596
144.504 -41.4833 0.174743
144.515 -41.45 0.176535
144.517 -41.448 0.175865
144.544 -41.4167 0.135141
144.55 -41.4115 0.135023
144.565 -41.3833 0.157012
144.583 -41.3524 0.156854
144.585 -41.35 0.157795
144.586 -41.3167 0.160381
144.583 -41.3112 0.162834
144.561 -41.2833 0.170658
144.55 -41.2643 0.180193
144.517 -41.252 0.163737
144.513 -41.25 0.163869
144.517 -41.2374 0.181452
144.521 -41.2167 0.201847
144.524 -41.1833 0.158548
144.517 -41.1776 0.155796
144.498 -41.1833 0.161869
144.483 -41.1893 0.167806
144.455 -41.2167 0.164174
144.45 -41.2195 0.163004
144.417 -41.2385 0.152343
144.401 -41.25 0.144376
144.383 -41.2734 0.123686
144.35 -41.2779 0.128921
144.327 -41.25 0.122086
144.317 -41.2423 0.12131
144.292 -41.2167 0.121796
144.283 -41.2058 0.122512
144.271 -41.1833 0.127872
144.25 -41.1577 0.13506
144.244 -41.15 0.139067
144.242 -41.1167 0.184229
144.25 -41.1118 0.189474
144.263 -41.0833 0.179311
144.25 -41.05 0.166052
144.25 -41.0496 0.166093
144.237 -41.0167 0.178319
144.25 -40.9833 0.173786
144.25 -40.9826 0.173632
144.276 -40.95 0.162195
144.283 -40.9351 0.154786
144.304 -40.9167 0.150198
144.3 -40.8833 0.161905
144.283 -40.8571 0.16182
144.25 -40.8514 0.145641
144.217 -40.861 0.133496
144.196 -40.8833 0.130061
144.183 -40.8975 0.134101
144.166 -40.9167 0.143145
144.15 -40.9287 0.144012
144.128 -40.95 0.13364
144.117 -40.9716 0.123835
144.112 -40.9833 0.122361
144.087 -41.0167 0.110466
144.083 -41.0203 0.107273
144.078 -41.0167 0.107114
144.05 -40.9969 0.110588
144.04 -40.9833 0.113086
144.032 -40.95 0.130844
144.017 -40.9357 0.150577
143.999 -40.9167 0.161819
143.983 -40.8908 0.17697
143.98 -40.8833 0.180248
143.95 -40.8566 0.154849
143.936 -40.85 0.14557
143.917 -40.8293 0.136391
143.891 -40.8167 0.118282
143.883 -40.8125 0.115497
143.85 -40.7838 0.124458
143.85 -40.7833 0.124486
143.817 -40.7558 0.114685
143.811 -40.75 0.114016
143.817 -40.7224 0.122121
143.819 -40.7167 0.123212
143.817 -40.7104 0.124008
143.811 -40.6833 0.126249
143.783 -40.6721 0.124101
143.763 -40.65 0.136025
143.75 -40.6381 0.148326
143.73 -40.6167 0.172771
143.717 -40.6025 0.187697
143.699 -40.5833 0.187095
143.683 -40.5594 0.171779
143.678 -40.55 0.167169
143.658 -40.5167 0.155867
143.65 -40.5063 0.155426
143.636 -40.4833 0.15332
143.621 -40.45 0.153906
143.617 -40.4383 0.147583
143.611 -40.4167 0.134959
143.606 -40.3833 0.147699
143.599 -40.35 0.16481
143.585 -40.3167 0.152736
143.583 -40.3136 0.151509
143.576 -40.2833 0.141244
143.574 -40.25 0.137089
143.583 -40.2167 0.143181
143.583 -40.2151 0.143159
143.595 -40.1833 0.140786
143.594 -40.15 0.13764
143.594 -40.1167 0.143076
143.6 -40.0833 0.137095
143.615 -40.05 0.127051
143.617 -40.0486 0.126681
143.638 -40.0167 0.111918
143.65 -40.0046 0.113235
143.661 -39.9833 0.128219
143.661 -39.95 0.152759
143.654 -39.9167 0.147969
143.654 -39.8833 0.143637
143.655 -39.85 0.152587
143.655 -39.8167 0.150757
143.65 -39.7895 0.141029
143.617 -39.8146 0.131884
143.612 -39.8167 0.130444
143.583 -39.8351 0.132966
143.55 -39.8463 0.122531
143.517 -39.8269 0.122288
143.514 -39.8167 0.126691
143.505 -39.7833 0.14941
143.509 -39.75 0.137742
143.498 -39.7167 0.168781
143.492 -39.6833 0.146259
143.496 -39.65 0.140609
143.517 -39.6331 0.140752
143.55 -39.6206 0.154954
143.566 -39.6167 0.141885
143.583 -39.6077 0.13023
143.617 -39.602 0.137419
143.65 -39.6004 0.144868
143.683 -39.5918 0.14038
143.701 -39.5833 0.140616
143.717 -39.5638 0.131872
143.726 -39.55 0.125294
143.749 -39.5167 0.120721
143.731 -39.4833 0.126381
143.717 -39.4726 0.129095
143.701 -39.45 0.121637
143.69 -39.4167 0.114763
143.683 -39.4102 0.119124
143.65 -39.4046 0.151887
143.617 -39.3965 0.150173
143.594 -39.3833 0.15227
143.583 -39.3715 0.144201
143.55 -39.3666 0.138738
143.534 -39.35 0.136381
143.518 -39.3167 0.14959
143.517 -39.3123 0.151425
143.503 -39.2833 0.160053
143.483 -39.2795 0.157867
143.462 -39.2833 0.149976
143.45 -39.2859 0.145527
143.417 -39.2978 0.150344
143.383 -39.3151 0.125994
143.38 -39.3167 0.124728
143.35 -39.3274 0.121019
143.317 -39.3272 0.124454
143.283 -39.3242 0.119529
143.25 -39.3229 0.114702
143.217 -39.3228 0.122637
143.183 -39.3229 0.127965
143.151 -39.3167 0.121966
143.15 -39.3165 0.121673
143.117 -39.3074 0.112401
143.083 -39.2973 0.13049
143.05 -39.2914 0.12348
143.017 -39.2918 0.118381
142.983 -39.2853 0.120794
142.982 -39.2833 0.120782
142.956 -39.25 0.125796
142.95 -39.2453 0.12737
142.917 -39.2264 0.138509
142.883 -39.2168 0.123972
142.883 -39.2167 0.124009
142.85 -39.2009 0.144892
142.834 -39.1833 0.140598
142.817 -39.1674 0.135564
142.803 -39.15 0.130339
142.783 -39.1266 0.121514
142.775 -39.1167 0.129101
142.763 -39.0833 0.171664
142.75 -39.0593 0.159221
142.735 -39.05 0.1595
142.717 -39.0451 0.16025
142.683 -39.0303 0.144274
142.653 -39.0167 0.142104
142.65 -39.0143 0.14181
142.617 -38.9862 0.135178
142.583 -38.9842 0.142794
142.574 -38.9833 0.143133
142.55 -38.9773 0.139754
142.532 -38.95 0.138114
142.517 -38.9373 0.132106
142.483 -38.9208 0.108301
142.476 -38.9167 0.106269
142.45 -38.9016 0.108766
142.442 -38.8833 0.115035
142.417 -38.8599 0.107392
142.402 -38.85 0.104655
142.383 -38.8382 0.10753
142.35 -38.8324 0.102237
142.317 -38.8279 0.0887054
142.286 -38.8167 0.093001
142.283 -38.8155 0.0939131
142.25 -38.7991 0.100858
142.217 -38.7868 0.11512
142.206 -38.7833 0.113923
142.183 -38.7702 0.105034
142.15 -38.7537 0.106834
142.142 -38.75 0.107245
142.117 -38.7392 0.107203
142.083 -38.7286 0.11824
142.054 -38.7167 0.120913
142.05 -38.7142 0.121666
142.017 -38.7005 0.131538
141.983 -38.699 0.118127
141.95 -38.6978 0.104815
141.917 -38.6849 0.102651
141.915 -38.6833 0.10289
141.883 -38.6617 0.114433
141.85 -38.6517 0.10329
141.846 -38.65 0.102153
141.817 -38.636 0.0965967
141.783 -38.6175 0.102247
141.782 -38.6167 0.102659
141.75 -38.5985 0.124918
141.717 -38.5858 0.152194
141.71 -38.5833 0.155003
141.683 -38.5728 0.151582
141.65 -38.5559 0.141224
141.637 -38.55 0.153316
141.617 -38.5408 0.165461
141.583 -38.5313 0.166153
141.55 -38.5173 0.139395
141.549 -38.5167 0.139088
141.517 -38.5002 0.133274
141.483 -38.4838 0.12158
141.482 -38.4833 0.121726
141.45 -38.4729 0.143972
141.417 -38.4685 0.154725
141.383 -38.4739 0.158132
141.366 -38.4833 0.15561
141.35 -38.498 0.141498
141.317 -38.4971 0.145406
141.304 -38.4833 0.150947
141.292 -38.45 0.17438
141.283 -38.4341 0.175333
141.276 -38.4167 0.179448
141.25 -38.3932 0.191412
141.236 -38.3833 0.191319
141.217 -38.3719 0.189044
141.183 -38.3553 0.192072
141.169 -38.35 0.189007
141.15 -38.3437 0.181525
141.128 -38.35 0.163545
141.117 -38.36 0.152014
141.103 -38.3833 0.144573
141.083 -38.3981 0.127703
141.05 -38.3854 0.134556
141.048 -38.3833 0.135771
141.041 -38.35 0.148343
141.022 -38.3167 0.14446
141.017 -38.3124 0.145765
140.983 -38.3022 0.152915
140.95 -38.3051 0.142347
140.926 -38.3167 0.13041
140.917 -38.3202 0.125708
140.883 -38.3269 0.109435
140.85 -38.3176 0.123071
140.848 -38.3167 0.122687
140.817 -38.2933 0.111776
140.805 -38.2833 0.116469
140.783 -38.261 0.115425
140.77 -38.25 0.117787
140.75 -38.2332 0.122607
140.717 -38.2255 0.123344
140.684 -38.2167 0.129596
140.683 -38.2166 0.129661
140.65 -38.2087 0.128307
140.617 -38.2098 0.123098
140.583 -38.2054 0.107052
140.55 -38.1893 0.115028
140.541 -38.1833 0.11484
140.517 -38.1578 0.110487
140.505 -38.15 0.111384
140.483 -38.1412 0.115324
140.45 -38.1288 0.0954852
140.432 -38.1167 0.0963429
140.417 -38.1047 0.0986842
140.383 -38.0966 0.095774
140.358 -38.0833 0.0879424
140.35 -38.0795 0.0880119
140.319 -38.05 0.108993
140.317 -38.048 0.109498
140.283 -38.0239 0.0925459
140.274 -38.0167 0.0916721
140.25 -37.9952 0.0995968
140.232 -37.9833 0.0958068
140.217 -37.9741 0.095275
140.183 -37.9561 0.0974376
140.159 -37.95 0.0836101
140.15 -37.947 0.0809837
140.117 -37.9294 0.0770055
140.087 -37.9167 0.0716152
140.083 -37.9134 0.0711471
140.068 -37.8833 0.0780211
140.057 -37.85 0.0932739
140.05 -37.8292 0.0968234
140.044 -37.8167 0.101073
140.017 -37.7843 0.101807
140.016 -37.7833 0.102096
139.983 -37.7612 0.126578
139.95 -37.7585 0.0966741
139.917 -37.7505 0.0910453
139.916 -37.75 0.0909901
139.883 -37.7326 0.0874378
139.85 -37.7184 0.087323
139.844 -37.7167 0.0875995
139.817 -37.7074 0.0944122
139.783 -37.6955 0.0822898
139.761 -37.6833 0.0840661
139.75 -37.6719 0.0875268
139.734 -37.65 0.085465
139.717 -37.6259 0.0799232
139.705 -37.6167 0.0792627
139.683 -37.6023 0.0780647
139.652 -37.5833 0.0808926
139.65 -37.5808 0.0810182
139.63 -37.55 0.0815896
139.617 -37.5302 0.0933969
139.605 -37.5167 0.0997781
139.583 -37.5019 0.0950978
139.557 -37.4833 0.0954918
139.55 -37.4784 0.0947729
139.517 -37.4578 0.0883907
139.504 -37.45 0.0893977
139.483 -37.4305 0.0831542
139.46 -37.4167 0.0807996
139.45 -37.4087 0.0829548
139.417 -37.4058 0.0760426
139.383 -37.3992 0.0857866
139.359 -37.3833 0.0756724
139.35 -37.3684 0.0810729
139.344 -37.35 0.0915687
139.339 -37.3167 0.0915497
139.319 -37.2833 0.101981
139.317 -37.2816 0.101685
139.283 -37.2517 0.0914783
139.281 -37.25 0.0912988
139.25 -37.2308 0.0988375
139.232 -37.2167 0.0998537
139.217 -37.2027 0.0907453
139.192 -37.1833 0.086476
139.183 -37.1752 0.0851187
139.164 -37.15 0.0755533
139.15 -37.1381 0.0780541
139.117 -37.1184 0.0800667
139.113 -37.1167 0.0801479
139.083 -37.0979 0.0820309
139.05 -37.0836 0.0725466
139.044 -37.0833 0.0714515
139.017 -37.0821 0.0666819
138.983 -37.0818 0.0625656
138.95 -37.0779 0.0662551
138.917 -37.072 0.0739847
138.883 -37.0598 0.0652446
138.85 -37.055 0.0682104
138.817 -37.0607 0.0816931
138.783 -37.0568 0.0774249
138.75 -37.0517 0.0804034
138.717 -37.0545 0.0862136
138.699 -37.05 0.0852913
138.683 -37.0443 0.084351
138.65 -37.0335 0.0844816
138.617 -37.0358 0.0771617
138.583 -37.0193 0.0721921
138.573 -37.0167 0.0761789
138.55 -37.0125 0.0865131
138.534 -37.0167 0.0874446
138.517 -37.0208 0.0842486
138.483 -37.0359 0.0712048
138.459 -37.05 0.0651884
138.45 -37.0509 0.0650887
138.427 -37.05 0.0675822
138.417 -37.047 0.0683781
138.383 -37.0369 0.0657734
138.35 -37.0283 0.0792
138.317 -37.0257 0.0771486
138.283 -37.0274 0.0688651
138.25 -37.027 0.0768829
138.217 -37.0273 0.0698682
138.183 -37.0343 0.0666289
138.15 -37.048 0.060395
138.117 -37.0427 0.0629363
138.083 -37.0313 0.0652235
138.05 -37.0215 0.0661937
138.025 -37.0167 0.0649832
138.017 -37.0143 0.0650452
137.983 -37.0079 0.061035
137.95 -36.9957 0.0651232
137.927 -36.9833 0.068309
137.917 -36.978 0.0674006
137.883 -36.9647 0.0674294
137.85 -36.9541 0.0643931
137.837 -36.95 0.06734
137.817 -36.9419 0.0753037
137.783 -36.9302 0.0689225
137.75 -36.917 0.0622195
137.749 -36.9167 0.0620672
137.717 -36.898 0.0659649
137.683 -36.8875 0.0609382
137.67 -36.8833 0.0602182
137.65 -36.8674 0.0610794
137.63 -36.85 0.060584
137.617 -36.8391 0.0621402
137.583 -36.8229 0.0666503
137.557 -36.8167 0.0603091
137.55 -36.812 0.0602907
137.517 -36.7907 0.0629421
137.501 -36.7833 0.0610118
137.483 -36.7674 0.0613484
137.463 -36.75 0.0609885
137.45 -36.7398 0.0621767
137.421 -36.7167 0.0578931
137.417 -36.7137 0.0573836
137.388 -36.6833 0.063729
137.417 -36.6558 0.0777367
137.42 -36.65 0.0799613
137.427 -36.6167 0.08364
137.417 -36.6156 0.0833861
137.404 -36.6167 0.0827328
137.383 -36.6206 0.0807834
137.35 -36.6349 0.0698454
137.317 -36.6329 0.0690312
137.283 -36.6313 0.0749927
137.266 -36.6167 0.074713
137.25 -36.6068 0.073763
137.217 -36.5978 0.0774171
137.183 -36.5924 0.0648365
137.164 -36.5833 0.0724125
137.15 -36.5742 0.0782081
137.117 -36.5526 0.075628
137.112 -36.55 0.0756108
137.083 -36.5295 0.0708431
137.067 -36.5167 0.0664217
137.05 -36.5039 0.0666397
137.017 -36.4903 0.0667728
136.983 -36.4839 0.0730294
136.981 -36.4833 0.0730588
136.95 -36.4664 0.0718997
136.932 -36.45 0.0743755
136.917 -36.419 0.0736736
136.914 -36.4167 0.0737349
136.883 -36.3956 0.083071
136.852 -36.3833 0.0816317
136.85 -36.3822 0.0813862
136.819 -36.35 0.0781644
136.817 -36.3481 0.0780393
136.783 -36.3207 0.0772488
136.777 -36.3167 0.0771591
136.75 -36.3123 0.0775695
136.717 -36.3043 0.0727843
136.683 -36.2882 0.0688335
136.682 -36.2833 0.068482
136.65 -36.258 0.0661248
136.631 -36.25 0.0648557
136.617 -36.2454 0.0641064
136.583 -36.2448 0.0613645
136.55 -36.2429 0.0684085
136.526 -36.2167 0.0601927
136.517 -36.2011 0.066894
136.505 -36.1833 0.0710766
136.483 -36.1614 0.0676248
136.45 -36.1726 0.0658023
136.438 -36.1833 0.0642843
136.417 -36.1907 0.0618609
136.393 -36.1833 0.0661281
136.383 -36.1732 0.069679
136.373 -36.15 0.0740737
136.375 -36.1167 0.0762218
136.374 -36.0833 0.0783744
136.361 -36.05 0.0767525
136.354 -36.0167 0.0753035
136.383 -35.9928 0.0761966
136.392 -35.9833 0.0745624
136.406 -35.95 0.0712124
136.417 -35.9301 0.0721893
136.424 -35.9167 0.0729728
136.44 -35.8833 0.0776896
136.448 -35.85 0.0780463
136.45 -35.8409 0.0788152
136.453 -35.8167 0.0810151
136.477 -35.7833 0.0784278
136.483 -35.7774 0.0791909
136.51 -35.75 0.0826474
136.517 -35.7402 0.0843543
136.539 -35.7167 0.0784119
136.539 -35.6833 0.0676685
136.517 -35.6604 0.0602533
136.503 -35.65 0.0626452
136.483 -35.6382 0.0673773
136.45 -35.6246 0.0672826
136.438 -35.6167 0.0658393
136.417 -35.5978 0.0643403
136.407 -35.5833 0.0664009
136.394 -35.55 0.0769628
136.383 -35.5382 0.0748811
136.35 -35.5259 0.0669426
136.317 -35.5203 0.0597936
136.283 -35.5205 0.0619463
136.25 -35.5201 0.0636395
136.217 -35.5192 0.0631281
136.211 -35.5167 0.0627415
136.183 -35.5056 0.0601497
136.15 -35.4837 0.0569181
136.149 -35.4833 0.0568269
136.117 -35.4589 0.0539319
136.083 -35.4519 0.0579103
136.081 -35.45 0.058306
136.083 -35.423 0.0535397
136.084 -35.4167 0.0533163
136.083 -35.415 0.0536735
136.05 -35.3939 0.0622431
136.042 -35.3833 0.0626874
136.017 -35.3618 0.0685953
135.993 -35.35 0.0750851
135.983 -35.3465 0.0763017
135.95 -35.3357 0.0704464
135.923 -35.3167 0.07361
135.917 -35.3122 0.0732734
135.883 -35.3004 0.072141
135.85 -35.289 0.0696971
135.828 -35.2833 0.0649371
135.817 -35.2771 0.0641611
135.783 -35.2693 0.0756909
135.75 -35.262 0.0751205
135.717 -35.2551 0.0783281
135.683 -35.2539 0.0860218
135.663 -35.2833 0.0741696
135.65 -35.2944 0.0743963
135.617 -35.3103 0.074399
135.583 -35.2994 0.0805853
135.57 -35.2833 0.0836867
135.564 -35.25 0.0825886
135.559 -35.2167 0.0706232
135.55 -35.1853 0.0768502
135.548 -35.1833 0.0771681
135.517 -35.1551 0.0816136
135.505 -35.15 0.081523
135.483 -35.139 0.0834653
135.45 -35.1206 0.081661
135.445 -35.1167 0.0821397
135.417 -35.098 0.0889205
135.399 -35.0833 0.0892963
135.383 -35.0692 0.0965445
135.357 -35.05 0.0970871
135.35 -35.0456 0.0937673
135.317 -35.0255 0.0811643
135.303 -35.0167 0.0786054
135.283 -35.004 0.0745961
135.25 -34.9878 0.0751716
135.232 -34.9833 0.0743427
135.217 -34.979 0.0737289
135.183 -34.9687 0.0712006
135.15 -34.9607 0.0733143
135.117 -34.9603 0.0734562
135.083 -34.9547 0.0745021
135.063 -34.95 0.077466
135.05 -34.9459 0.0783476
135.017 -34.9317 0.0699918
134.983 -34.9238 0.066706
134.958 -34.9167 0.0677067
134.95 -34.914 0.0676912
134.917 -34.8984 0.0641946
134.883 -34.8871 0.0621248
134.877 -34.8833 0.0626916
134.855 -34.85 0.0647783
134.85 -34.8302 0.0637963
134.817 -34.8333 0.0676469
134.783 -34.845 0.0732833
134.77 -34.85 0.0737556
134.75 -34.8557 0.073107
134.717 -34.8603 0.0715025
134.695 -34.85 0.0715726
134.683 -34.8428 0.0702948
134.663 -34.8167 0.0671145
134.666 -34.7833 0.0771068
134.683 -34.7594 0.0760989
134.717 -34.7505 0.0736857
134.718 -34.75 0.0736578
134.717 -34.7465 0.0745046
134.683 -34.7353 0.0753795
134.65 -34.7231 0.0715972
134.638 -34.7167 0.0722215
134.617 -34.7036 0.0734153
134.583 -34.702 0.0750632
134.55 -34.6981 0.0662034
134.517 -34.6918 0.0676236
134.495 -34.6833 0.0654021
134.483 -34.6725 0.0661545
134.469 -34.65 0.0719366
134.45 -34.6315 0.0796243
134.436 -34.6167 0.0823542
134.417 -34.5999 0.0789007
134.384 -34.5833 0.0771175
134.383 -34.5829 0.077059
134.35 -34.5635 0.0706433
134.317 -34.5537 0.0611657
134.283 -34.5665 0.0672804
134.25 -34.5771 0.068828
134.217 -34.5685 0.0704228
134.183 -34.5567 0.07526
134.157 -34.55 0.0776967
134.15 -34.5477 0.0780944
134.117 -34.5449 0.0778002
134.083 -34.5428 0.077884
134.05 -34.5371 0.0821517
134.017 -34.5291 0.0902018
133.983 -34.5209 0.0819946
133.952 -34.5167 0.0858006
133.95 -34.5164 0.0859033
133.917 -34.5045 0.0772669
133.883 -34.489 0.0645886
133.873 -34.4833 0.0650677
133.85 -34.4666 0.0656241
133.817 -34.4535 0.064541
133.809 -34.45 0.0656315
133.783 -34.4363 0.0691279
133.75 -34.4223 0.0700884
133.735 -34.4167 0.0780559
133.717 -34.4061 0.093497
133.683 -34.3886 0.0894001
133.65 -34.385 0.0979942
133.641 -34.3833 0.0955298
133.617 -34.3694 0.0837969
133.605 -34.35 0.0826128
133.589 -34.3167 0.0827417
133.584 -34.2833 0.0796625
133.583 -34.2612 0.0795333
133.583 -34.25 0.0796693
133.55 -34.2353 0.08375
133.517 -34.228 0.0820135
133.485 -34.2167 0.0807871
133.483 -34.2162 0.0808907
133.45 -34.1967 0.0856968
133.421 -34.1833 0.0862608
133.417 -34.1815 0.0862781
133.383 -34.1632 0.0858746
133.367 -34.15 0.0851458
133.35 -34.133 0.0871841
133.331 -34.1167 0.0901932
133.317 -34.1003 0.0936336
133.293 -34.0833 0.0921734
133.283 -34.0687 0.0880575
133.276 -34.05 0.0851055
133.283 -34.0399 0.0883401
133.3 -34.0167 0.093447
133.29 -33.9833 0.083859
133.283 -33.9777 0.0825213
133.25 -33.9585 0.0896019
133.236 -33.95 0.09379
133.236 -33.9167 0.085084
133.223 -33.8833 0.0937169
133.217 -33.8779 0.0930248
133.199 -33.85 0.0982113
133.193 -33.8167 0.0884012
133.184 -33.7833 0.0832895
133.183 -33.7822 0.0832889
133.15 -33.7789 0.079118
133.142 -33.7833 0.0799299
133.117 -33.7943 0.0834531
133.103 -33.7833 0.0859144
133.083 -33.7659 0.0873914
133.069 -33.75 0.0843538
133.05 -33.7289 0.0797803
133.036 -33.7167 0.0804678
133.028 -33.6833 0.0812735
133.032 -33.65 0.0812629
133.019 -33.6167 0.085581
133.017 -33.6156 0.0850776
132.983 -33.6091 0.08297
132.95 -33.6123 0.0815424
132.919 -33.6167 0.0810474
132.917 -33.6172 0.0810118
132.915 -33.6167 0.0809705
132.883 -33.606 0.0801829
132.858 -33.5833 0.079447
132.85 -33.5775 0.0791169
132.817 -33.5615 0.0799808
132.79 -33.55 0.0795875
132.783 -33.5446 0.0803925
132.75 -33.518 0.0865805
132.747 -33.5167 0.086615
132.717 -33.5029 0.0867233
132.683 -33.5009 0.0859686
132.653 -33.4833 0.0898307
132.65 -33.4818 0.0893625
132.617 -33.4595 0.0818018
132.596 -33.45 0.0772957
132.583 -33.4421 0.0762206
132.55 -33.424 0.0888912
132.537 -33.4167 0.089792
132.529 -33.3833 0.088172
132.534 -33.35 0.077061
132.517 -33.3331 0.074499
132.504 -33.3167 0.0711941
132.485 -33.2833 0.0635663
132.483 -33.2814 0.0636609
132.45 -33.2593 0.0616269
132.419 -33.25 0.0660661
132.417 -33.2492 0.0663852
132.383 -33.2462 0.0733681
132.35 -33.2378 0.0727665
132.32 -33.2167 0.0787628
132.317 -33.2126 0.0778651
132.295 -33.1833 0.0721294
132.283 -33.169 0.0731164
132.25 -33.1634 0.0712523
132.217 -33.182 0.0821262
132.183 -33.1729 0.0757674
132.15 -33.1665 0.0784368
132.117 -33.1669 0.0800475
132.083 -33.1737 0.0750822
132.05 -33.1626 0.0789523
132.017 -33.1524 0.076689
131.983 -33.1578 0.079845
131.95 -33.1564 0.071388
131.917 -33.1533 0.0741026
131.883 -33.1548 0.0798738
131.873 -33.15 0.081171
131.85 -33.1333 0.0855441
131.827 -33.1167 0.0895567
131.817 -33.109 0.0888815
131.783 -33.087 0.085478
131.779 -33.0833 0.0847257
131.75 -33.0595 0.0760983
131.717 -33.0589 0.0727703
131.683 -33.0584 0.0707923
131.668 -33.05 0.0694615
131.65 -33.0445 0.0699147
131.617 -33.0312 0.0685297
131.584 -33.0167 0.069896
131.583 -33.0165 0.0699455
131.582 -33.0167 0.0699972
131.55 -33.0242 0.0725084
131.517 -33.034 0.0727011
131.483 -33.0346 0.0730333
131.45 -33.0333 0.0752801
131.417 -33.0293 0.0793931
131.383 -33.023 0.0756522
131.35 -33.0212 0.0796833
131.317 -33.0234 0.0836428
131.283 -33.0281 0.0820533
131.25 -33.0378 0.0787939
131.217 -33.0451 0.0765253
131.183 -33.0446 0.0744104
131.15 -33.0468 0.0742104
131.117 -33.0393 0.0747987
131.083 -33.0263 0.0737241
131.05 -33.0279 0.0750459
131.017 -33.0267 0.0724035
130.983 -33.0213 0.0804716
130.95 -33.0285 0.0945224
130.917 -33.0256 0.0954297
130.885 -33.05 0.0945858
130.883 -33.0512 0.0950865
130.85 -33.0742 0.106286
130.817 -33.0717 0.110429
130.783 -33.061 0.100828
130.75 -33.0627 0.0941644
130.717 -33.07 0.08245
130.683 -33.072 0.0781034
130.65 -33.0697 0.0745234
130.617 -33.0666 0.0728643
130.583 -33.0606 0.0697426
130.55 -33.0602 0.0726356
130.517 -33.0679 0.0768277
130.483 -33.071 0.0781635
130.45 -33.0747 0.0751378
130.417 -33.0822 0.074136
130.411 -33.0833 0.074565
130.383 -33.0878 0.0767582
130.35 -33.0863 0.0714211
130.317 -33.0851 0.0649619
130.283 -33.087 0.0641351
130.25 -33.0904 0.063356
130.217 -33.0927 0.062717
130.183 -33.0932 0.0620133
130.15 -33.0899 0.0612793
130.117 -33.0878 0.0612279
130.083 -33.0859 0.061412
130.05 -33.0843 0.0618149
130.017 -33.0846 0.0623239
130 -33.0833 0.0624779
129.983 -33.0806 0.0631649
129.95 -33.0747 0.0681223
129.917 -33.0741 0.0681133
129.883 -33.0703 0.0711117
129.85 -33.0669 0.0733105
129.817 -33.0649 0.0721988
129.783 -33.0623 0.0733475
129.75 -33.0588 0.0734805
129.717 -33.0566 0.0680239
129.683 -33.0551 0.0692518
129.65 -33.0524 0.0707491
129.64 -33.05 0.0715235
129.617 -33.0437 0.0732121
129.583 -33.0376 0.0728673
129.55 -33.0401 0.0746104
129.517 -33.0404 0.0685766
129.483 -33.0391 0.0667909
129.45 -33.0411 0.0643627
129.417 -33.0447 0.0638075
129.383 -33.0464 0.0628869
129.35 -33.0477 0.0620097
129.329 -33.05 0.0615698
129.317 -33.0512 0.0618308
129.283 -33.0539 0.0652031
129.25 -33.0539 0.0657871
129.217 -33.0546 0.0657088
129.183 -33.0561 0.0699936
129.15 -33.0558 0.0826163
129.117 -33.0566 0.0928233
129.083 -33.0586 0.090022
129.05 -33.0597 0.08882
129.017 -33.0604 0.0857369
128.983 -33.0616 0.0821304
128.95 -33.0637 0.0805378
128.917 -33.0649 0.0765102
128.883 -33.0683 0.0641551
128.85 -33.0741 0.0600962
128.817 -33.0753 0.0576022
128.783 -33.076 0.0626193
128.75 -33.0779 0.0673433
128.717 -33.0785 0.0702935
128.683 -33.0783 0.0703552
128.65 -33.0763 0.0662204
128.617 -33.0726 0.0722027
128.583 -33.0692 0.0737374
128.55 -33.0678 0.0760979
128.517 -33.0691 0.0827889
128.483 -33.0712 0.0907152
128.45 -33.0698 0.0916297
128.417 -33.0666 0.0905741
128.383 -33.0665 0.0910385
128.35 -33.0687 0.0961874
128.317 -33.0689 0.100147
128.283 -33.0653 0.0980041
128.25 -33.0674 0.0883218
128.221 -33.0833 0.0766331
128.217 -33.084 0.0758586
128.183 -33.0866 0.0736611
128.15 -33.0851 0.0664685
128.117 -33.0855 0.0727281
128.083 -33.09 0.0716265
128.05 -33.0912 0.0705715
128.017 -33.0876 0.0705424
127.983 -33.0846 0.0718087
127.95 -33.0876 0.0676634
127.917 -33.0929 0.0708025
127.883 -33.0969 0.0753656
127.85 -33.1029 0.0741149
127.817 -33.1093 0.0728696
127.783 -33.1139 0.07483
127.776 -33.1167 0.0752453
127.75 -33.1215 0.0789262
127.717 -33.1293 0.0854166
127.683 -33.1371 0.0845066
127.65 -33.144 0.0808784
127.617 -33.1482 0.0805325
127.603 -33.15 0.0781562
127.583 -33.1518 0.074318
127.55 -33.1543 0.0719289
127.517 -33.1566 0.0763513
127.483 -33.1577 0.0722437
127.45 -33.156 0.0723557
127.417 -33.1553 0.073171
127.383 -33.1532 0.0739237
127.366 -33.15 0.0743769
127.35 -33.1452 0.0749926
127.317 -33.1389 0.0754932
127.283 -33.1367 0.0825504
127.25 -33.1326 0.0809388
127.217 -33.128 0.0785576
127.183 -33.1238 0.0782171
127.15 -33.1168 0.0785251
127.149 -33.1167 0.078543
127.117 -33.108 0.0775027
127.083 -33.1045 0.0776164
127.05 -33.0993 0.0767673
127.017 -33.0957 0.0783265
126.983 -33.095 0.0778259
126.95 -33.0948 0.0790982
126.917 -33.097 0.0783774
126.883 -33.0985 0.0765842
126.85 -33.0998 0.0760941
126.817 -33.1037 0.075793
126.783 -33.1089 0.075698
126.75 -33.1167 0.0764302
126.75 -33.1167 0.0764302
126.717 -33.1204 0.0762979
126.683 -33.1223 0.076034
126.65 -33.1231 0.0761438
126.617 -33.1249 0.076042
126.583 -33.1275 0.0781824
126.55 -33.1304 0.0808795
126.517 -33.1367 0.0802188
126.483 -33.1423 0.07966
126.45 -33.1475 0.0863022
126.439 -33.15 0.0869964
126.417 -33.1541 0.0859366
126.383 -33.1584 0.0761994
126.35 -33.1649 0.0827196
126.317 -33.1705 0.0949364
126.283 -33.1746 0.0976218
126.25 -33.1831 0.0938002
126.249 -33.1833 0.0935868
126.217 -33.1879 0.0848571
126.183 -33.2008 0.0796604
126.167 -33.2167 0.073879
126.15 -33.2295 0.0695719
126.128 -33.25 0.0721788
126.117 -33.2585 0.0720462
126.083 -33.2796 0.068312
126.076 -33.2833 0.0684803
126.05 -33.2925 0.0693985
126.017 -33.315 0.0774691
126.014 -33.3167 0.0775106
125.983 -33.331 0.073103
125.955 -33.35 0.079185
125.95 -33.3521 0.0795605
125.917 -33.3662 0.0783021
125.891 -33.3833 0.0748137
125.883 -33.3895 0.0770937
125.85 -33.4078 0.0868579
125.837 -33.4167 0.0891438
125.817 -33.4294 0.0898959
125.787 -33.45 0.0920935
125.783 -33.4524 0.0929566
125.75 -33.4736 0.0872708
125.737 -33.4833 0.0857998
125.717 -33.4974 0.0892937
125.687 -33.5167 0.0959903
125.683 -33.5193 0.0958368
125.65 -33.5415 0.0828007
125.637 -33.55 0.0847452
125.617 -33.5672 0.0929521
125.594 -33.5833 0.0870864
125.583 -33.6013 0.0824579
125.571 -33.6167 0.0781407
125.552 -33.65 0.0774732
125.55 -33.6515 0.0776663
125.517 -33.6693 0.0734646
125.494 -33.6833 0.0776199
125.483 -33.689 0.0784039
125.451 -33.7167 0.0692707
125.45 -33.7172 0.0693062
125.42 -33.75 0.0801315
125.417 -33.7535 0.0800513
125.393 -33.7833 0.0739179
125.384 -33.8167 0.0694043
125.383 -33.817 0.06953
125.35 -33.8381 0.0707471
125.33 -33.85 0.075508
125.317 -33.8516 0.0799307
125.283 -33.8548 0.0828862
125.25 -33.8732 0.0729846
125.233 -33.8833 0.071128
125.217 -33.8957 0.0708874
125.183 -33.9164 0.0711548
125.181 -33.9167 0.0714246
125.15 -33.9207 0.0779744
125.117 -33.9412 0.0745233
125.09 -33.95 0.0745332
125.083 -33.9553 0.0747092
125.05 -33.9763 0.0857873
125.03 -33.9833 0.0848615
125.017 -33.9895 0.0795162
124.983 -34.015 0.0690477
124.978 -34.0167 0.0696733
124.95 -34.0223 0.0733023
124.917 -34.0486 0.0674268
124.914 -34.05 0.0682698
124.883 -34.0562 0.07999
124.854 -34.0833 0.0687107
124.85 -34.0839 0.0690284
124.817 -34.0863 0.0690247
124.783 -34.0936 0.0635784
124.75 -34.1145 0.0726618
124.747 -34.1167 0.0721627
124.717 -34.1208 0.0687374
124.683 -34.1279 0.0740306
124.65 -34.1471 0.0670436
124.646 -34.15 0.0661069
124.617 -34.1543 0.0664123
124.583 -34.1603 0.0634802
124.55 -34.1763 0.0638905
124.541 -34.1833 0.0638598
124.517 -34.1871 0.0648671
124.483 -34.1937 0.0659279
124.45 -34.2073 0.0626399
124.437 -34.2167 0.0620478
124.417 -34.2193 0.0646459
124.383 -34.2202 0.0681283
124.35 -34.2225 0.0658224
124.319 -34.25 0.0603897
124.317 -34.2507 0.0604573
124.283 -34.2583 0.0677938
124.25 -34.2726 0.0650557
124.24 -34.2833 0.0636589
124.217 -34.2882 0.0625229
124.183 -34.2936 0.0681975
124.15 -34.3162 0.0608839
124.15 -34.3167 0.0608647
124.117 -34.3229 0.0633242
124.083 -34.3293 0.0684715
124.052 -34.35 0.0583135
124.05 -34.3507 0.0584747
124.017 -34.3667 0.0641684
124.002 -34.3833 0.0603024
123.983 -34.3986 0.060421
123.963 -34.4167 0.0616036
123.95 -34.4243 0.0607589
123.919 -34.45 0.0595483
123.917 -34.4512 0.0597412
123.883 -34.4558 0.0642808
123.854 -34.4833 0.068058
123.85 -34.4889 0.0672657
123.817 -34.51 0.0616398
123.807 -34.5167 0.0634422
123.783 -34.5203 0.0661635
123.75 -34.5307 0.0628136
123.721 -34.55 0.062659
123.717 -34.5507 0.0625294
123.683 -34.5551 0.0578913
123.65 -34.5616 0.0593195
123.617 -34.5703 0.0563744
123.583 -34.5822 0.0607813
123.581 -34.5833 0.0608916
123.55 -34.5848 0.0619419
123.517 -34.5861 0.0588652
123.483 -34.587 0.0577165
123.45 -34.5874 0.0654691
123.417 -34.5877 0.0592273
123.383 -34.5879 0.0638584
123.35 -34.5883 0.0680793
123.317 -34.5881 0.0543514
123.283 -34.588 0.0555088
123.25 -34.5884 0.0563197
123.217 -34.5885 0.0597411
123.183 -34.5885 0.0600081
123.15 -34.5882 0.0622834
123.117 -34.5875 0.0587891
123.083 -34.587 0.0605657
123.05 -34.5871 0.0546632
123.017 -34.5874 0.0628369
122.983 -34.5877 0.0752942
122.95 -34.5881 0.0615959
122.917 -34.5883 0.0590901
122.883 -34.5867 0.0612775
122.85 -34.5857 0.0588568
122.817 -34.5856 0.0633515
122.783 -34.5861 0.0567654
122.75 -34.5875 0.0695024
122.717 -34.5888 0.0699489
122.683 -34.588 0.0660545
122.65 -34.5878 0.062656
122.619 -34.6167 0.0604181
122.617 -34.6169 0.060234
122.583 -34.6175 0.0622654
122.55 -34.617 0.0619837
122.522 -34.6167 0.0675139
122.55 -34.6048 0.0681875
122.583 -34.5896 0.0729119
122.609 -34.5833 0.0665018
122.583 -34.5729 0.0789968
122.55 -34.5612 0.0853795
122.517 -34.5534 0.0805771
122.502 -34.55 0.0848903
122.483 -34.5488 0.0900405
122.45 -34.5468 0.0830925
122.417 -34.5465 0.0823006
122.383 -34.5442 0.0831497
122.35 -34.5417 0.0767019
122.317 -34.5401 0.0818358
122.283 -34.5385 0.0774914
122.25 -34.5389 0.0894399
122.217 -34.539 0.0749932
122.183 -34.5388 0.0727074
122.15 -34.5373 0.0673715
122.117 -34.5333 0.0620296
122.083 -34.529 0.0685231
122.05 -34.5296 0.0701699
122.017 -34.5437 0.0617559
121.983 -34.5259 0.0749869
121.95 -34.5252 0.0753896
121.917 -34.5192 0.0708869
121.883 -34.5171 0.0751016
121.877 -34.5167 0.0737338
121.85 -34.5122 0.0646313
121.817 -34.4983 0.0675383
121.79 -34.4833 0.07289
121.783 -34.4782 0.0750039
121.75 -34.4794 0.0836995
121.717 -34.4749 0.0925243
121.683 -34.4717 0.0850063
121.65 -34.4707 0.0886936
121.617 -34.4758 0.0842293
121.6 -34.4833 0.07325
121.617 -34.4864 0.079076
121.65 -34.4922 0.0711951
121.683 -34.4981 0.0674091
121.717 -34.5144 0.0696912
121.718 -34.5167 0.0687266
121.717 -34.5168 0.0684405
121.683 -34.5183 0.0532538
121.65 -34.519 0.0578723
121.617 -34.5193 0.0556831
121.583 -34.519 0.057626
121.55 -34.5184 0.0520528
121.517 -34.5175 0.0548174
121.504 -34.5167 0.0541109
121.483 -34.5017 0.0534313
121.45 -34.495 0.0637375
121.417 -34.4924 0.0761403
121.383 -34.4913 0.0596328
121.35 -34.4907 0.061285
121.317 -34.49 0.0624368
121.283 -34.4899 0.0590021
121.25 -34.4899 0.0576677
121.217 -34.4895 0.0617126
121.183 -34.4887 0.0587702
121.15 -34.4875 0.0585961
121.117 -34.4867 0.0563331
121.083 -34.4847 0.0556463
121.067 -34.4833 0.0557471
121.05 -34.4751 0.0609281
121.017 -34.4688 0.062679
120.983 -34.4675 0.0617522
120.95 -34.4665 0.0587409
120.917 -34.4638 0.0690522
120.883 -34.4618 0.0707779
120.85 -34.4612 0.06383
120.817 -34.4603 0.0706452
120.783 -34.4608 0.0655998
120.75 -34.4661 0.0608882
120.717 -34.4705 0.0698708
120.683 -34.4685 0.072364
120.65 -34.4718 0.0649125
120.617 -34.4796 0.0606932
120.583 -34.4831 0.0586771
120.583 -34.4833 0.0586479
120.55 -34.4852 0.0648495
120.517 -34.4874 0.0581337
120.483 -34.4881 0.0621707
120.45 -34.4899 0.059758
120.417 -34.4917 0.0595272
120.383 -34.4952 0.0618105
120.35 -34.5013 0.0694079
120.317 -34.5124 0.0655789
120.307 -34.5167 0.0645903
120.283 -34.518 0.0632591
120.25 -34.5202 0.0609143
120.217 -34.5222 0.0679425
120.183 -34.5249 0.0659895
120.15 -34.53 0.0690681
120.117 -34.5377 0.0622153
120.094 -34.55 0.0611951
120.083 -34.5511 0.0627429
120.05 -34.5542 0.0814047
120.017 -34.5547 0.0645558
119.983 -34.5571 0.0679867
119.951 -34.5833 0.0731162
119.95 -34.5835 0.0731034
119.917 -34.5869 0.0633594
119.883 -34.5894 0.0640857
119.85 -34.5921 0.0756208
119.817 -34.5946 0.0715876
119.783 -34.6102 0.0698071
119.777 -34.6167 0.0686916
119.75 -34.6188 0.0634579
119.717 -34.6211 0.0651358
119.683 -34.6386 0.067426
119.671 -34.65 0.0646049
119.65 -34.6554 0.0643462
119.617 -34.6616 0.0709977
119.584 -34.6833 0.0675007
119.583 -34.6834 0.0675233
119.55 -34.6903 0.0666095
119.517 -34.7006 0.0738545
119.497 -34.7167 0.0678168
119.483 -34.7198 0.0696514
119.45 -34.7257 0.0734881
119.417 -34.7363 0.083661
119.399 -34.75 0.0836623
119.383 -34.7538 0.0896874
119.35 -34.762 0.0761725
119.317 -34.7808 0.080008
119.314 -34.7833 0.079115
119.283 -34.7911 0.0761949
119.251 -34.8167 0.0750214
119.25 -34.8174 0.0749383
119.217 -34.8428 0.0727679
119.21 -34.85 0.0759958
119.183 -34.8703 0.0820372
119.168 -34.8833 0.0749183
119.15 -34.8894 0.0744642
119.117 -34.9141 0.0747676
119.114 -34.9167 0.0744302
119.083 -34.9285 0.0793275
119.057 -34.95 0.076882
119.05 -34.9531 0.0767753
119.017 -34.9657 0.0808039
118.996 -34.9833 0.0703515
118.983 -34.9878 0.0705045
118.95 -34.9971 0.0809049
118.927 -35.0167 0.0831297
118.917 -35.0205 0.0843047
118.883 -35.0317 0.0867913
118.861 -35.05 0.0985977
118.85 -35.0542 0.098069
118.817 -35.0673 0.0879424
118.793 -35.0833 0.0759118
118.783 -35.0858 0.0754464
118.75 -35.1014 0.0779335
118.736 -35.1167 0.0726268
118.717 -35.1309 0.0710408
118.688 -35.15 0.0757033
118.683 -35.1512 0.0756065
118.65 -35.1565 0.07132
118.617 -35.166 0.0901108
118.583 -35.1706 0.0779108
118.55 -35.1713 0.0815374
118.525 -35.1833 0.0853142
118.517 -35.1886 0.0859951
118.499 -35.2167 0.078273
118.483 -35.2433 0.0715195
118.475 -35.25 0.0725753
118.45 -35.257 0.0827871
118.417 -35.2753 0.0803059
118.409 -35.2833 0.0755143
118.383 -35.2888 0.081255
118.35 -35.2989 0.0840846
118.325 -35.3167 0.0754023
118.317 -35.3185 0.07513
118.283 -35.3236 0.073939
118.25 -35.3322 0.0862072
118.217 -35.3453 0.0749472
118.188 -35.35 0.0691249
118.183 -35.3501 0.0686002
118.15 -35.3507 0.0680136
118.117 -35.3544 0.0862188
118.083 -35.3626 0.0780678
118.053 -35.3833 0.0799114
118.05 -35.3841 0.080135
118.017 -35.3923 0.0725728
117.983 -35.4056 0.0738378
117.964 -35.4167 0.0710067
117.95 -35.4174 0.0709024
117.917 -35.4181 0.0693899
117.883 -35.4179 0.0734812
117.85 -35.4174 0.0780185
117.826 -35.4167 0.0839432
117.817 -35.415 0.0847604
117.783 -35.4096 0.0716286
117.75 -35.4048 0.0784001
117.717 -35.4001 0.0789496
117.683 -35.395 0.0717992
117.65 -35.3912 0.0829783
117.617 -35.3891 0.0924975
117.583 -35.3874 0.0704733
117.55 -35.3862 0.0741316
117.517 -35.3844 0.0631239
117.501 -35.3833 0.0617461
117.483 -35.3729 0.0707152
117.45 -35.3619 0.0798026
117.417 -35.358 0.0766649
117.393 -35.35 0.0816059
117.383 -35.3418 0.0884965
117.35 -35.3397 0.0825885
117.336 -35.35 0.0746734
117.317 -35.3527 0.0710738
117.301 -35.35 0.0748298
117.283 -35.3379 0.0859338
117.25 -35.3274 0.0896805
117.217 -35.3294 0.0956659
117.183 -35.3375 0.0859016
117.15 -35.3389 0.0801612
117.131 -35.35 0.069229
117.117 -35.3522 0.0722391
117.083 -35.364 0.0746697
117.05 -35.3622 0.0800496
117.017 -35.3722 0.0740744
117.005 -35.3833 0.0636613
116.983 -35.3859 0.0608947
116.95 -35.3869 0.0812169
116.917 -35.3872 0.0798586
116.883 -35.3869 0.0861043
116.85 -35.3855 0.0852344
116.817 -35.3839 0.0812374
116.802 -35.3833 0.0785681
116.783 -35.3804 0.0773815
116.75 -35.3786 0.0770499
116.717 -35.3755 0.0761811
116.683 -35.3731 0.0789316
116.65 -35.3694 0.0782217
116.617 -35.3535 0.0939472
116.583 -35.3513 0.0858569
116.55 -35.3513 0.0881868
116.517 -35.3507 0.0877574
116.483 -35.3504 0.0709924
116.47 -35.35 0.0716523
116.468 -35.3167 0.0934506
116.45 -35.3111 0.0936995
116.417 -35.3002 0.0975985
116.383 -35.2922 0.0963501
116.36 -35.2833 0.0957501
116.35 -35.2802 0.0971412
116.317 -35.267 0.106428
116.283 -35.2569 0.0974674
116.261 -35.25 0.101085
116.25 -35.2455 0.104703
116.217 -35.2301 0.112575
116.183 -35.2181 0.111364
116.179 -35.2167 0.112002
116.15 -35.2037 0.115865
116.117 -35.1916 0.103426
116.09 -35.1833 0.103227
116.083 -35.1805 0.103192
116.05 -35.163 0.101019
116.023 -35.15 0.0987415
116.017 -35.1467 0.098494
115.983 -35.1259 0.104294
115.967 -35.1167 0.103256
115.95 -35.1075 0.105463
115.917 -35.0882 0.123159
115.907 -35.0833 0.12066
115.883 -35.071 0.122576
115.85 -35.051 0.111576
115.848 -35.05 0.11109
115.817 -35.0326 0.120551
115.783 -35.0212 0.129458
115.766 -35.0167 0.112431
115.75 -35.0121 0.0996942
115.717 -34.9925 0.119192
115.7 -34.9833 0.127777
115.683 -34.9716 0.134324
115.65 -34.9545 0.12622
115.641 -34.95 0.127815
115.617 -34.9373 0.140104
115.583 -34.9222 0.120628
115.573 -34.9167 0.12071
115.55 -34.9066 0.128011
115.517 -34.8902 0.117221
115.504 -34.8833 0.115561
115.483 -34.8734 0.121649
115.45 -34.859 0.130773
115.432 -34.85 0.141997
115.417 -34.8435 0.149007
115.383 -34.8293 0.122674
115.358 -34.8167 0.118089
115.35 -34.8132 0.120542
115.317 -34.794 0.134205
115.302 -34.7833 0.145599
115.283 -34.7715 0.146133
115.252 -34.75 0.14064
115.25 -34.7487 0.141719
115.217 -34.7275 0.157121
115.201 -34.7167 0.155074
115.183 -34.7042 0.157103
115.157 -34.6833 0.159226
115.15 -34.6774 0.157964
115.117 -34.652 0.148275
115.114 -34.65 0.14737
115.083 -34.6267 0.140319
115.071 -34.6167 0.144989
115.05 -34.5982 0.152315
115.034 -34.5833 0.153075
115.017 -34.567 0.15405
114.998 -34.55 0.164325
114.983 -34.5368 0.167258
114.963 -34.5167 0.142725
114.95 -34.5022 0.130939
114.935 -34.4833 0.13326
114.917 -34.4558 0.139919
114.912 -34.45 0.140504
114.89 -34.4167 0.15615
114.883 -34.4059 0.15792
114.869 -34.3833 0.156882
114.85 -34.35 0.162902
114.85 -34.3494 0.163076
114.831 -34.3167 0.151492
114.817 -34.2848 0.147901
114.816 -34.2833 0.14801
114.803 -34.25 0.159
114.793 -34.2167 0.163151
114.783 -34.1864 0.157029
114.782 -34.1833 0.156298
114.771 -34.15 0.15197
114.761 -34.1167 0.154821
114.752 -34.0833 0.169834
114.75 -34.0745 0.170787
114.742 -34.05 0.166382
114.734 -34.0167 0.165215
114.729 -33.9833 0.19742
114.726 -33.95 0.22191
114.722 -33.9167 0.261813
114.719 -33.8833 0.16531
114.717 -33.8541 0.178617
114.716 -33.85 0.181754
114.713 -33.8167 0.201667
114.711 -33.7833 0.174927
114.71 -33.75 0.182531
114.708 -33.7167 0.186148
114.706 -33.6833 0.187458
114.704 -33.65 0.194107
114.702 -33.6167 0.194469
114.702 -33.5833 0.193021
114.702 -33.55 0.189718
114.703 -33.5167 0.188977
114.704 -33.4833 0.188297
114.706 -33.45 0.18371
114.709 -33.4167 0.180226
114.713 -33.3833 0.178053
114.717 -33.3629 0.177297
114.719 -33.35 0.176652
114.726 -33.3167 0.175848
114.732 -33.2833 0.184841
114.74 -33.25 0.17436
114.75 -33.2201 0.175764
114.751 -33.2167 0.176542
114.759 -33.1833 0.177412
114.767 -33.15 0.177543
114.78 -33.1167 0.17664
114.783 -33.1079 0.176751
114.792 -33.0833 0.177183
114.804 -33.05 0.17324
114.817 -33.0225 0.172094
114.819 -33.0167 0.171579
114.831 -32.9833 0.169338
114.848 -32.95 0.168965
114.85 -32.9453 0.168658
114.864 -32.9167 0.166438
114.883 -32.8838 0.164984
114.884 -32.8833 0.165112
114.904 -32.85 0.164332
114.917 -32.8307 0.163994
114.926 -32.8167 0.163994
114.946 -32.7833 0.165295
114.95 -32.7772 0.165649
114.963 -32.75 0.166675
114.982 -32.7167 0.170603
114.983 -32.7138 0.170836
115 -32.6833 0.176917
115.017 -32.6541 0.183314
115.019 -32.65 0.1839
115.041 -32.6167 0.188815
115.05 -32.6032 0.189021
115.064 -32.5833 0.188238
115.083 -32.5536 0.183711
115.086 -32.55 0.183082
115.107 -32.5167 0.174187
115.117 -32.5043 0.170286
115.132 -32.4833 0.163027
115.15 -32.4603 0.155613
115.157 -32.45 0.152114
115.178 -32.4167 0.143485
115.183 -32.4087 0.145699
115.199 -32.3833 0.149536
115.217 -32.3536 0.135311
115.219 -32.35 0.134825
115.237 -32.3167 0.133944
115.25 -32.2937 0.132259
115.255 -32.2833 0.131652
115.272 -32.25 0.132438
115.283 -32.2283 0.136955
115.289 -32.2167 0.141974
115.304 -32.1833 0.145931
115.317 -32.1577 0.140237
115.32 -32.15 0.140307
115.333 -32.1167 0.131765
115.345 -32.0833 0.130833
115.35 -32.0534 0.121938
115.35 -32.05 0.121206
115.35 -32.0428 0.120403
115.348 -32.0167 0.120105
115.341 -31.9833 0.117135
115.333 -31.95 0.131378
115.322 -31.9167 0.136726
115.317 -31.9045 0.146608
115.305 -31.8833 0.157523
115.283 -31.8501 0.135484
115.283 -31.85 0.135508
115.267 -31.8167 0.148729
115.258 -31.7833 0.1562
115.255 -31.75 0.157677
115.25 -31.7283 0.15434
115.246 -31.7167 0.151639
115.23 -31.6833 0.142406
115.222 -31.65 0.138354
115.217 -31.6184 0.134931
115.216 -31.6167 0.134838
115.204 -31.5833 0.134464
115.183 -31.5657 0.135528
115.175 -31.55 0.13691
115.15 -31.5226 0.134543
115.147 -31.5167 0.135264
115.117 -31.484 0.137579
115.116 -31.4833 0.137428
115.09 -31.45 0.137977
115.083 -31.4376 0.138512
115.073 -31.4167 0.13826
115.059 -31.3833 0.13695
115.05 -31.3662 0.142605
115.043 -31.35 0.14402
115.031 -31.3167 0.132373
115.018 -31.2833 0.141469
115.017 -31.2786 0.140799
115.008 -31.25 0.128428
114.999 -31.2167 0.122972
114.99 -31.1833 0.124833
114.983 -31.1597 0.121366
114.98 -31.15 0.122615
114.971 -31.1167 0.137379
114.964 -31.0833 0.124315
114.953 -31.05 0.125053
114.95 -31.0422 0.129035
114.939 -31.0167 0.139134
114.929 -30.9833 0.1345
114.917 -30.951 0.127925
114.916 -30.95 0.127452
114.905 -30.9167 0.131295
114.895 -30.8833 0.135774
114.883 -30.8501 0.148145
114.883 -30.85 0.148154
114.87 -30.8167 0.127234
114.859 -30.7833 0.131294
114.85 -30.7606 0.12906
114.845 -30.75 0.128511
114.832 -30.7167 0.129154
114.817 -30.6848 0.127958
114.816 -30.6833 0.127822
114.801 -30.65 0.123812
114.788 -30.6167 0.128986
114.783 -30.6081 0.133207
114.773 -30.5833 0.154957
114.761 -30.55 0.175132
114.75 -30.5258 0.140023
114.746 -30.5167 0.134552
114.733 -30.4833 0.161263
114.717 -30.45 0.140853
114.717 -30.4496 0.140898
114.703 -30.4167 0.15161
